ply
format ascii 1.0
element vertex 1196
property float x
property float y
property float z
property uchar red
property uchar green
property uchar blue
end_header
-5.007282 40.685997 -17.224327 172 74 87
-4.630730 40.309441 -17.224327 172 74 87
-4.630730 40.685997 -17.600883 172 74 87
-4.630730 40.685997 -16.847771 172 74 87
-4.630730 41.062553 -17.224327 172 74 87
-4.254177 40.685997 -17.224327 172 74 87
-3.081383 -3.314003 -4.224327 80 71 78
-2.630730 -3.764656 -4.224327 80 71 78
-2.630730 -3.314003 -4.674980 80 71 78
-2.630730 -3.314003 -3.773674 80 71 78
-3.121338 -2.314003 -5.224327 253 253 255
-2.630730 -2.804611 -5.224327 253 253 255
-2.630730 -2.314003 -5.714935 253 253 255
-3.070412 -2.314003 -4.224327 244 243 250
-2.630730 -2.314003 -3.784645 244 243 250
-2.630730 -1.823395 -5.224327 253 253 255
-2.630730 -1.874321 -4.224327 244 243 250
-2.973080 24.685997 -25.224327 45 36 17
-2.630730 24.343651 -25.224327 45 36 17
-2.630730 24.685997 -25.566673 45 36 17
-2.630730 24.685997 -24.881981 45 36 17
-2.630730 25.028343 -25.224327 45 36 17
-2.125050 -5.314003 -5.224327 204 203 214
-1.630730 -5.808319 -5.224327 204 203 214
-1.630730 -5.314003 -5.718643 204 203 214
-2.127361 -5.314003 -4.224327 216 211 223
-1.630730 -5.810631 -4.224327 216 211 223
-1.630730 -5.314003 -3.727699 216 211 223
-2.124107 -4.314003 -5.224327 215 213 227
-1.630730 -4.314003 -5.717705 215 213 227
-2.090992 -4.314003 -4.224327 213 211 224
-1.630730 -4.737549 -3.224327 217 211 226
-2.054279 -4.314003 -3.224327 217 211 226
-1.630730 -4.314003 -2.800781 217 211 226
-2.122597 -3.314003 -5.224327 221 223 231
-1.630730 -3.314003 -5.716194 221 223 231
-2.034607 -3.314003 -3.224327 220 214 229
-1.630730 -3.314003 -2.820450 220 214 229
-2.140121 -2.314003 -5.224327 253 253 255
-1.630730 -2.822136 -5.224327 221 223 231
-1.630730 -2.314003 -4.676109 242 248 250
-2.023441 -2.314003 -3.224327 23 22 24
-1.630730 -2.314003 -2.831612 23 22 24
-1.630730 -1.314003 -5.719643 250 255 251
-2.126045 -1.314003 -5.224327 250 255 251
-1.630730 -1.809319 -5.224327 250 255 251
-1.630730 -1.314003 -4.729012 250 255 251
-1.630730 -1.862221 -4.224327 242 248 250
-1.630730 -1.921288 -3.224327 23 22 24
-1.630730 -0.818687 -5.224327 250 255 251
-2.110245 5.685997 -4.224327 9 16 10
-1.630730 5.206482 -4.224327 9 16 10
-1.630730 5.685997 -4.703842 9 16 10
-2.078255 5.685997 -3.224327 7 11 6
-1.630730 5.238472 -3.224327 7 11 6
-2.047298 5.685997 -2.224327 7 13 11
-1.630730 5.269432 -2.224327 7 13 11
-1.630730 5.685997 -1.807762 7 13 11
-2.099407 6.685997 -4.224327 26 25 27
-1.630730 6.685997 -4.693008 26 25 27
-2.057827 6.685997 -3.224327 21 26 14
-1.630730 6.685997 -2.797226 21 26 14
-1.630730 6.102562 -2.224327 7 13 11
-2.114990 7.685997 -4.224327 91 79 61
-1.630730 7.685997 -4.708588 91 79 61
-2.077805 7.685997 -3.224327 70 67 62
-1.630730 7.685997 -2.777252 70 67 62
-1.630730 8.170258 -4.224327 91 79 61
-1.630730 8.133072 -3.224327 70 67 62
-2.120510 10.685997 -3.224327 40 20 21
-1.630730 10.196213 -3.224327 40 20 21
-1.630730 10.685997 -3.714111 40 20 21
-1.630730 10.685997 -2.734543 40 20 21
-1.630730 11.175781 -3.224327 40 20 21
-2.288380 24.685997 -25.224327 45 36 17
-1.106735 -6.314003 -3.224327 185 180 178
-0.630730 -6.790009 -3.224327 185 180 178
-0.630730 -6.314003 -3.700333 185 180 178
-0.630730 -6.314003 -2.748322 185 180 178
-1.136410 -5.314003 -5.224327 204 203 214
-1.134098 -5.314003 -4.224327 216 211 223
-0.630730 -5.314003 -3.677452 203 198 206
-1.083855 -5.314003 -3.224327 203 198 206
-0.630730 -5.715828 -2.224327 179 170 175
-1.032555 -5.314003 -2.224327 179 170 175
-0.630730 -5.314003 -1.822502 179 170 175
-0.630730 -4.813400 -5.224327 214 217 220
-0.630730 -4.314003 -5.723724 214 217 220
-0.630730 -4.782822 -4.224327 214 213 217
-0.994236 -4.314003 -2.224327 151 141 155
-0.630730 -4.314003 -1.860817 151 141 155
-0.630730 -3.314003 -5.714775 116 121 114
-0.971825 -3.314003 -2.224327 208 206 215
-0.630730 -3.314003 -1.883232 208 206 215
-1.094898 -2.314003 -5.224327 40 35 15
-0.630730 -2.314003 -5.688499 40 35 15
-0.932865 -2.314003 -2.224327 219 217 230
-0.630730 -2.314003 -1.922188 219 217 230
-0.630730 -1.314003 -5.700874 102 103 97
-1.026840 -1.314003 -4.224327 51 52 38
-0.970165 -1.314003 -3.224327 54 53 40
-0.923908 -1.314003 -2.224327 176 183 177
-0.630730 -1.497116 -1.224327 224 217 237
-0.813847 -1.314003 -1.224327 224 217 237
-0.630730 -1.314003 -1.041214 224 217 237
-1.094738 -0.314003 -5.224327 21 29 14
-0.630730 -0.314003 -5.688332 21 29 14
-1.028236 -0.314003 -4.224327 14 19 7
-0.630730 -0.314003 -3.826820 14 19 7
-0.630730 -0.974564 -3.224327 54 53 40
-0.630730 -1.020821 -2.224327 176 183 177
-0.630730 -1.130890 -1.224327 224 217 237
-1.095634 0.685997 -5.224327 20 21 8
-0.630730 0.685997 -5.689232 20 21 8
-1.039818 0.685997 -4.224327 82 85 62
-0.630730 0.685997 -3.815239 82 85 62
-1.085102 1.685997 -5.224327 59 47 16
-0.630730 1.685997 -5.678703 59 47 16
-1.022099 1.685997 -4.224327 85 70 40
-0.630730 1.685997 -3.832962 85 70 40
-1.083168 2.685997 -5.224327 88 77 43
-0.630730 2.685997 -5.676765 88 77 43
-1.018494 2.685997 -4.224327 84 71 47
-0.630730 2.685997 -3.836563 84 71 47
-0.821720 2.685997 -1.224327 4 7 10
-0.630730 2.495003 -1.224327 4 7 10
-0.630730 2.685997 -1.415321 4 7 10
-0.630730 2.685997 -1.033333 4 7 10
-1.102524 3.685997 -5.224327 113 100 69
-0.630730 3.685997 -5.696121 113 100 69
-1.069462 3.685997 -4.224327 124 113 77
-0.630730 3.321167 -3.224327 119 111 81
-0.995560 3.685997 -3.224327 119 111 81
-0.899826 3.685997 -2.224327 81 75 58
-0.630730 3.416901 -2.224327 81 75 58
-0.741478 3.685997 -1.224327 24 23 23
-0.630730 3.685997 -1.113579 24 23 23
-1.104343 4.685997 -5.224327 101 89 62
-0.630730 4.685997 -5.697937 101 89 62
-1.082199 4.685997 -4.224327 127 119 88
-1.018974 4.685997 -3.224327 107 100 75
-0.923382 4.685997 -2.224327 101 90 68
-0.630730 4.685997 -1.931679 101 90 68
-0.630730 3.796745 -1.224327 24 23 23
-1.130730 5.685997 -6.224327 75 66 45
-0.630730 5.185997 -6.224327 0 0 0
-0.630730 5.685997 -6.724327 75 66 45
-0.630730 5.159607 -5.224327 101 89 62
-0.630730 5.685997 -5.724327 75 66 45
-0.630730 5.685997 -4.696793 82 79 63
-0.630730 5.685997 -1.810455 134 55 60
-0.630730 6.185997 -6.224327 0 0 0
-0.630730 6.685997 -4.718536 45 38 28
-1.075474 6.685997 -2.224327 166 73 78
-0.630730 6.685997 -1.779587 166 73 78
-0.630730 7.180206 -4.224327 45 38 28
-1.146469 7.685997 -4.224327 91 79 61
-0.630730 7.685997 -3.719933 180 86 98
-0.630730 7.685997 -2.728722 180 86 98
-0.630730 7.130737 -2.224327 166 73 78
-0.630730 8.181602 -3.224327 180 86 98
-0.630730 8.292023 -2.224327 107 105 93
-0.630730 8.685997 -2.618301 107 105 93
-1.024700 8.685997 -2.224327 107 105 93
-0.630730 8.685997 -1.830353 107 105 93
-0.630730 9.079971 -2.224327 107 105 93
-1.140949 10.685997 -3.224327 40 20 21
-0.945129 18.685997 -4.224327 138 52 66
-0.630730 18.371597 -4.224327 138 52 66
-0.630730 18.685997 -4.538727 138 52 66
-0.630730 18.685997 -3.909927 138 52 66
-0.630730 19.000397 -4.224327 138 52 66
-0.125309 -7.314003 -3.224327 177 167 179
0.369270 -7.808578 -3.224327 177 167 179
0.369270 -7.314003 -3.718903 177 167 179
-0.118912 -7.314003 -2.224327 185 181 186
0.369270 -7.802185 -2.224327 185 181 186
0.369270 -7.314003 -1.736145 185 181 186
0.369270 -6.314003 -3.705620 184 177 181
-0.080872 -6.314003 -2.224327 182 175 178
0.369270 -6.314003 -1.774185 182 175 178
-0.115177 -5.314003 -5.224327 209 206 220
0.369270 -5.798454 -5.224327 209 206 220
0.369270 -5.314003 -5.708778 209 206 220
-0.130013 -5.314003 -4.224327 209 208 215
0.369270 -5.813286 -4.224327 209 208 215
-0.010178 -5.314003 -1.224327 186 181 189
0.369270 -5.693451 -1.224327 186 181 189
0.369270 -5.314003 -0.844879 186 181 189
0.369270 -4.314003 -5.709030 224 225 238
0.041603 -4.314003 -1.224327 185 178 189
0.369270 -4.314003 -0.896660 185 178 189
0.369270 -3.314003 -5.707268 96 95 87
0.106930 -3.314003 -1.224327 179 170 178
0.369270 -3.314003 -0.961990 179 170 178
-0.127022 -2.314003 -6.224327 43 31 11
0.369270 -2.810295 -6.224327 43 31 11
0.369270 -2.314003 -6.720619 43 31 11
0.150261 -2.314003 -1.224327 200 199 203
0.369270 -2.449997 -0.224327 184 179 189
0.233276 -2.314003 -0.224327 184 179 189
0.369270 -2.314003 -0.088333 184 179 189
-0.126862 -1.314003 -6.224327 66 56 28
0.369270 -1.314003 -6.720459 66 56 28
0.346287 -1.314003 -0.224327 203 198 208
0.369270 -1.314003 -0.201340 203 198 208
-0.124348 -0.314003 -6.224327 63 51 24
0.369270 -0.314003 -6.717949 63 51 24
0.060989 -0.314003 -3.224327 67 57 30
0.162716 -0.314003 -2.224327 63 54 28
0.257385 -0.314003 -1.224327 75 76 60
0.369270 -0.314003 -0.710632 40 35 16
0.369270 -1.149239 -0.224327 203 198 208
-0.123676 0.685997 -6.224327 67 60 29
0.369270 0.685997 -6.717270 67 60 29
0.061935 0.685997 -3.224327 72 62 33
0.162312 0.685997 -2.224327 84 75 38
0.249424 0.685997 -1.224327 107 103 73
0.369270 0.685997 -0.734962 107 103 73
-0.124386 1.685997 -6.224327 80 69 36
0.369270 1.685997 -6.717987 80 69 36
0.028744 1.685997 -3.224327 114 107 80
0.149174 1.685997 -2.224327 113 101 70
0.286045 1.685997 -1.224327 121 111 80
0.369270 1.650864 -0.224327 184 87 94
0.364124 1.685997 -0.224327 184 87 94
0.369270 1.685997 -0.219177 184 87 94
-0.121956 2.685997 -6.224327 100 85 57
0.369270 2.685997 -6.715553 100 85 57
0.037529 2.685997 -3.224327 109 98 67
0.124645 2.685997 -2.224327 110 102 70
0.287930 2.685997 -0.224327 123 49 54
0.369270 2.685997 -0.142982 123 49 54
-0.121376 3.685997 -6.224327 98 85 61
0.369270 3.685997 -6.714973 98 85 61
0.369270 3.685997 -0.968590 122 41 45
0.369270 2.767342 -0.224327 123 49 54
-0.120483 4.685997 -6.224327 180 179 179
0.369270 4.685997 -6.714081 180 179 179
0.033409 4.685997 -1.224327 30 27 22
0.369270 4.685997 -0.888466 30 27 22
0.369270 5.685997 -6.712456 87 74 50
-0.121910 5.685997 -5.224327 115 102 80
-0.003757 5.685997 -1.224327 132 50 58
0.369270 5.685997 -0.851295 132 50 58
0.369270 6.174126 -6.224327 87 74 50
0.369270 6.177177 -5.224327 115 102 80
0.369270 6.685997 -4.691986 12 12 8
-0.048328 6.685997 -1.224327 139 54 63
0.369270 6.685997 -0.806725 139 54 63
-0.101910 7.685997 -4.224327 18 15 10
0.369270 7.685997 -4.695503 18 15 10
0.369270 7.144318 -3.224327 30 34 20
0.369270 7.685997 -3.753151 18 15 10
-0.135124 7.685997 -3.224327 180 86 98
0.369270 7.685997 -2.722450 85 81 70
-0.128857 7.685997 -2.224327 85 81 70
0.369270 7.685997 -1.726204 85 81 70
0.369270 7.103600 -1.224327 139 54 63
0.369270 8.157173 -4.224327 18 15 10
0.369270 8.184120 -2.224327 85 81 70
-0.236759 8.685997 -2.224327 107 105 93
-0.316330 18.685997 -4.224327 138 52 66
-0.025551 20.685997 -23.224327 70 58 40
0.369270 20.291176 -23.224327 70 58 40
0.369270 20.685997 -23.619148 70 58 40
0.369270 20.685997 -22.829506 70 58 40
0.369270 21.080818 -23.224327 70 58 40
0.863850 -7.314003 -3.224327 177 167 179
0.857452 -7.314003 -2.224327 185 181 186
1.369270 -7.795029 -1.224327 133 125 141
1.369270 -7.314003 -1.705353 133 125 141
0.888241 -7.314003 -1.224327 133 125 141
1.369270 -7.314003 -0.743301 133 125 141
1.369270 -6.803131 -3.224327 103 86 58
1.369270 -6.314003 -3.713455 103 86 58
1.369270 -6.776215 -2.224327 127 121 130
0.922314 -6.314003 -1.224327 118 113 121
1.369270 -6.314003 -0.777367 118 113 121
0.853718 -5.314003 -5.224327 209 206 220
1.369270 -5.314003 -4.684135 172 167 175
1.369270 -5.773811 -4.224327 172 167 175
1.369270 -5.314003 -0.819252 121 88 71
1.369270 -4.812767 -5.224327 120 118 118
1.369270 -4.314003 -5.723091 120 118 118
1.369270 -4.631042 -0.224327 141 106 89
1.052227 -4.314003 -0.224327 141 106 89
1.369270 -4.314003 0.092712 141 106 89
1.369270 -3.314003 -5.712296 33 28 17
1.119167 -3.314003 -0.224327 135 101 81
1.369270 -3.314003 0.025772 135 101 81
0.865562 -2.314003 -6.224327 43 31 11
1.369270 -2.314003 -5.690392 48 43 16
1.369270 -2.314003 -0.071251 134 102 83
1.369270 -1.801476 -6.224327 149 155 136
1.369270 -1.314003 -6.711800 149 155 136
1.369270 -1.314003 0.645195 126 92 80
1.369270 -0.314003 -6.708527 77 67 44
1.369270 -0.314003 -0.897667 83 74 49
1.369270 -1.170242 -0.224327 146 142 141
1.369270 0.685997 -6.712585 91 80 45
1.369270 0.685997 -0.911041 102 90 57
1.369270 1.685997 -6.705643 64 52 28
0.389084 1.685997 -0.224327 184 87 94
1.369270 1.685997 -0.857628 117 106 80
0.883278 2.685997 -7.224327 72 55 41
1.369270 2.200005 -7.224327 72 55 41
1.369270 2.685997 -7.710320 72 55 41
0.557838 2.685997 -0.224327 123 49 54
1.369270 2.685997 -0.811127 99 95 74
1.369270 3.171989 -7.224327 72 55 41
1.369270 3.685997 -6.710976 96 80 57
1.369270 3.685997 -0.588074 72 49 44
1.369270 4.685997 -6.708748 97 80 62
1.369270 4.685997 -0.440018 72 69 64
1.369270 5.170418 -6.224327 97 80 62
0.857395 5.685997 -6.224327 87 74 50
1.369270 5.685997 -5.698051 103 86 69
1.369270 5.316887 -0.224327 106 112 110
1.330776 5.685997 -0.224327 106 112 110
1.369270 5.685997 -0.185837 106 112 110
1.369270 6.685997 -5.707932 87 73 54
0.885666 6.685997 -5.224327 87 73 54
1.369270 6.685997 -1.031342 62 69 73
1.369270 5.724487 -0.224327 106 112 110
1.369270 7.169601 -5.224327 87 73 54
1.369270 7.685997 -4.713783 93 81 65
0.898529 7.685997 -3.224327 134 122 92
1.087765 7.685997 -1.224327 33 44 53
1.369270 7.685997 -0.942825 33 44 53
1.369270 8.175453 -4.224327 93 81 65
0.883888 8.685997 -3.224327 154 139 109
1.369270 8.685997 -3.709709 154 139 109
0.942829 8.685997 -2.224327 150 131 102
1.026619 8.685997 -1.224327 65 68 67
1.369270 8.685997 -0.881676 65 68 67
1.369270 9.171379 -3.224327 154 139 109
1.369270 9.685997 -2.657486 119 123 118
0.936111 9.685997 -2.224327 119 123 118
0.991116 9.685997 -1.224327 72 73 64
1.369270 9.685997 -0.846169 72 73 64
1.369270 10.119156 -2.224327 119 123 118
1.369270 10.685997 -1.655685 116 118 109
0.937912 10.685997 -1.224327 116 118 109
1.369270 10.685997 -0.792969 116 118 109
0.871712 11.685997 -2.224327 117 118 112
1.369270 11.188438 -2.224327 117 118 112
1.369270 11.685997 -2.721886 117 118 112
1.369270 11.117355 -1.224327 116 118 109
1.369270 11.685997 -1.726768 117 118 112
1.369270 12.183556 -2.224327 117 118 112
0.764091 20.685997 -23.224327 70 58 40
1.874958 -7.314003 -2.224327 136 98 87
2.369270 -7.808319 -2.224327 136 98 87
2.369270 -7.314003 -2.718643 136 98 87
1.850300 -7.314003 -1.224327 133 125 141
2.369270 -7.314003 -1.730011 136 98 87
2.369270 -7.790207 -0.224327 138 102 92
2.369270 -7.314003 -0.700531 138 102 92
1.893063 -7.314003 -0.224327 138 102 92
2.369270 -7.314003 0.251877 138 102 92
1.858402 -6.314003 -3.224327 103 86 58
2.369270 -6.314003 -2.706711 138 104 78
2.369270 -6.782310 -1.224327 135 106 85
1.928417 -6.314003 -0.224327 135 98 84
2.369270 -6.314003 0.216530 135 98 84
2.369270 -5.785721 -4.224327 177 172 178
2.369270 -5.314003 -4.696045 177 172 178
2.369270 -5.799736 -3.224327 169 165 154
1.970833 -5.314003 -0.224327 132 99 82
2.369270 -5.314003 0.174110 132 99 82
1.868031 -4.314003 -5.224327 120 118 118
2.369270 -4.314003 -4.694054 192 191 193
2.369270 -4.314003 0.123878 130 97 82
2.369270 -3.792015 -5.224327 232 231 240
2.369270 -3.314003 -5.702339 232 231 240
2.369270 -3.556068 0.775673 131 118 136
2.127205 -3.314003 0.775673 131 118 136
2.369270 -3.314003 1.017738 131 118 136
1.879078 -2.314003 -6.224327 164 165 160
2.369270 -2.804192 -6.224327 164 165 160
2.369270 -2.314003 -6.714516 164 165 160
2.163635 -2.314003 0.775673 155 148 157
2.369270 -2.314003 0.981308 155 148 157
2.369270 -1.314003 -6.709404 123 117 106
2.369270 -1.314003 -0.033318 175 179 174
2.369270 -2.108368 0.775673 155 148 157
2.369270 -0.314003 -6.708061 86 77 52
1.874924 -0.314003 -0.224327 136 141 131
2.369270 -0.314003 -0.094460 136 141 131
2.369270 0.685997 -6.720711 88 78 49
2.369270 0.685997 -0.988724 100 88 58
2.369270 0.015854 -0.224327 136 141 131
2.369270 1.685997 -6.701172 64 52 21
2.369270 1.685997 -0.860115 137 124 93
1.855263 2.685997 -7.224327 72 55 41
2.369270 2.685997 -6.684227 73 62 39
2.369270 2.685997 -0.963699 133 120 84
2.369270 3.145897 -6.224327 73 62 39
1.855919 3.685997 -6.224327 96 80 57
2.369270 3.685997 -5.698204 107 94 61
2.369270 3.685997 -0.894348 128 115 83
1.853687 4.685997 -6.224327 97 80 62
2.369270 4.685997 -5.699928 107 93 65
2.369270 4.685997 -0.515717 95 97 88
2.369270 5.685997 -5.712585 109 93 68
2.369270 5.046951 -0.224327 95 97 88
2.369270 5.685997 -0.116119 184 197 196
2.369270 6.174255 -5.224327 109 93 68
1.852875 6.685997 -5.224327 87 73 54
2.369270 6.685997 -4.704010 112 100 73
2.149178 6.685997 -0.224327 185 195 200
2.369270 6.685997 -0.004234 185 195 200
2.369270 7.165680 -4.224327 112 100 73
1.858723 7.685997 -4.224327 93 81 65
2.369270 7.685997 -3.679726 134 119 94
2.068832 7.685997 -0.224327 183 193 198
2.369270 7.685997 0.076111 183 193 198
2.369270 8.685997 -3.706573 146 131 103
2.032787 8.685997 -0.224327 178 183 190
2.369270 8.685997 0.112160 178 183 190
2.369270 9.168243 -3.224327 146 131 103
2.369270 9.685997 -2.653748 75 84 81
2.369270 9.685997 -0.816452 48 50 41
2.369270 9.022484 -0.224327 178 183 190
1.899704 10.685997 -2.224327 95 108 102
2.369270 10.685997 -2.693893 95 108 102
2.369270 10.685997 -0.759346 113 121 122
1.866829 11.685997 -2.224327 117 118 112
2.369270 11.155563 -2.224327 95 108 102
2.369270 11.685997 -1.710228 135 134 141
1.883369 11.685997 -1.224327 135 134 141
2.369270 11.685997 -0.738426 135 134 141
2.035770 12.685997 -10.224327 84 70 51
2.369270 12.352501 -10.224327 84 70 51
2.369270 12.685997 -10.557823 84 70 51
2.369270 12.685997 -9.890831 84 70 51
2.369270 12.171898 -1.224327 135 134 141
2.369270 13.019493 -10.224327 84 70 51
2.972858 -10.314003 -6.224327 147 159 163
3.369270 -10.710411 -6.224327 147 159 163
3.369270 -10.314003 -6.620735 147 159 163
3.369270 -10.314003 -5.827919 147 159 163
3.369270 -9.917595 -6.224327 147 159 163
2.863583 -7.314003 -2.224327 136 98 87
3.369270 -7.811882 -0.224327 122 87 72
3.369270 -7.314003 -0.722206 122 87 72
3.369270 -7.314003 0.273552 122 87 72
3.369270 -6.799461 -2.224327 120 88 68
3.369270 -6.314003 -2.709785 120 88 68
3.369270 -6.785423 -1.224327 115 83 67
3.369270 -6.747917 0.775673 120 89 78
2.935360 -6.314003 0.775673 120 89 78
3.369270 -6.314003 1.209587 120 89 78
3.369270 -5.800652 -4.224327 169 165 170
3.369270 -5.314003 -4.710976 169 165 170
3.369270 -5.809334 -3.224327 150 144 131
2.975845 -5.314003 0.775673 101 92 99
3.369270 -5.314003 1.169098 101 92 99
2.871975 -4.314003 -5.224327 213 208 216
3.369270 -4.811302 -5.224327 213 208 216
3.369270 -4.314003 -5.721626 213 208 216
3.005203 -4.314003 0.775673 155 149 153
3.369270 -4.314003 1.139740 155 149 153
3.369270 -3.314003 -5.700584 216 211 223
3.369270 -3.314003 0.122513 166 162 164
2.611336 -3.314003 0.775673 131 118 136
3.369270 -3.949936 0.775673 155 149 153
3.369270 -2.809738 -6.224327 133 131 124
3.369270 -2.314003 -6.720062 133 131 124
2.574905 -2.314003 0.775673 155 148 157
3.369270 -2.314003 0.111671 178 185 177
3.369270 -1.314003 -6.721130 218 223 228
3.369270 -1.314003 0.043755 169 172 170
3.369270 -0.314003 -6.716644 86 77 56
3.369270 -0.314003 0.034142 177 187 175
3.369270 0.685997 -6.696281 81 66 56
3.318909 0.685997 -0.224327 22 31 22
3.369270 0.685997 -0.208504 22 31 22
3.369270 1.685997 -6.716827 84 70 48
3.369270 1.685997 -0.459145 78 56 17
3.369270 1.000809 -0.224327 22 31 22
3.369270 2.685997 -6.703125 87 70 54
3.369270 2.685997 -0.803482 109 99 64
3.369270 3.164795 -6.224327 87 70 54
3.369270 3.685997 -5.705460 99 84 55
3.369270 3.685997 -0.825073 127 117 85
3.369270 4.685997 -5.704620 95 82 57
3.369270 4.685997 -0.891975 128 116 87
3.369270 5.685997 -5.710297 104 87 69
2.477482 5.685997 -0.224327 184 197 196
3.369270 5.685997 -1.070618 86 75 46
3.369270 6.171967 -5.224327 104 87 69
3.369270 6.685997 -4.706894 123 106 78
2.589363 6.685997 -0.224327 185 195 200
3.369270 6.685997 -1.002327 89 92 76
3.369270 7.168564 -4.224327 123 106 78
3.369270 7.685997 -3.702805 128 121 98
3.369270 7.353653 -0.224327 189 201 207
3.369270 7.685997 0.108017 189 201 207
3.369270 8.685997 -3.705711 117 110 96
3.369270 8.685997 0.142296 194 205 205
2.878620 9.685997 -3.224327 136 126 98
3.369270 9.685997 -3.714973 136 126 98
2.981979 9.685997 -0.224327 194 204 207
3.369270 9.685997 0.162964 194 204 207
3.369270 10.176643 -3.224327 136 126 98
3.369270 10.685997 -2.702301 85 83 73
3.369270 10.685997 -0.749207 42 62 57
3.369270 10.073288 -0.224327 194 204 207
2.877701 11.685997 -2.224327 69 72 56
3.369270 11.685997 -2.715897 69 72 56
3.369270 11.161118 -1.224327 42 62 57
3.369270 11.685997 -1.732758 69 72 56
2.855171 11.685997 -1.224327 135 134 141
2.889397 11.685997 -0.224327 184 196 202
3.369270 11.206123 -0.224327 184 196 202
3.369270 11.685997 -0.704201 184 196 202
3.369270 11.685997 0.255547 184 196 202
2.702770 12.685997 -10.224327 84 70 51
3.369270 12.177567 -2.224327 69 72 56
3.369270 12.165871 -0.224327 184 196 202
3.250904 16.685997 -7.224327 117 98 81
3.369270 16.567627 -7.224327 117 98 81
3.369270 16.685997 -7.342697 117 98 81
3.369270 16.685997 -7.105957 117 98 81
3.369270 16.804367 -7.224327 117 98 81
3.765682 -10.314003 -6.224327 147 159 163
3.874561 -7.314003 -1.224327 98 67 54
4.369270 -7.808716 -1.224327 98 67 54
4.369270 -7.314003 -1.719040 98 67 54
3.867149 -7.314003 -0.224327 122 87 72
4.369270 -7.314003 -0.729614 98 67 54
4.369270 -7.808037 0.775673 120 116 119
4.369270 -7.314003 0.281639 120 116 119
3.875237 -7.314003 0.775673 120 116 119
4.369270 -7.314003 1.269707 120 116 119
3.854729 -6.314003 -2.224327 120 88 68
4.369270 -6.314003 -1.694077 77 52 32
4.369270 -6.811554 -0.224327 87 81 85
4.369270 -6.314003 1.246605 88 77 83
3.855919 -5.314003 -4.224327 169 165 170
4.369270 -5.314003 -3.689644 70 55 52
4.369270 -5.779320 -3.224327 70 55 52
4.369270 -5.807587 -2.224327 157 154 151
4.369270 -5.314003 1.221107 163 157 163
3.866566 -4.314003 -5.224327 213 208 216
4.369270 -4.314003 -4.703033 202 197 205
4.369270 -4.792709 -4.224327 202 197 205
3.733337 -4.314003 0.775673 155 149 153
4.369270 -4.314003 0.225693 177 180 179
4.369270 -4.868568 0.775673 163 157 163
3.845531 -3.314003 -5.224327 216 211 223
4.369270 -3.314003 -4.703278 199 198 199
4.369270 -3.314003 0.197754 177 184 178
3.865005 -2.314003 -6.224327 133 131 124
3.845860 -2.314003 -5.224327 113 108 95
4.369270 -2.314003 -4.695023 135 135 124
4.369270 -2.314003 0.166000 174 181 173
3.866074 -1.314003 -6.224327 218 223 228
4.369270 -1.314003 -5.715469 91 88 65
4.369270 -1.805145 -5.224327 91 88 65
3.637356 -1.314003 -0.224327 169 172 170
4.369270 -1.314003 -0.861038 160 169 164
4.369270 -1.923676 -0.224327 174 181 173
3.861584 -0.314003 -6.224327 86 77 56
4.369270 -0.314003 -5.706207 74 69 43
3.627739 -0.314003 -0.224327 177 187 175
4.369270 -0.314003 -0.884346 135 140 130
4.369270 0.192589 -6.224327 83 66 48
4.369270 0.685997 -6.717735 83 66 48
3.385098 0.685997 -0.224327 22 31 22
4.369270 0.685997 -0.922707 78 89 72
4.369270 1.685997 -6.723831 80 64 43
4.369270 1.685997 -1.094749 79 73 40
4.369270 2.685997 -6.714325 83 66 45
4.369270 2.685997 -1.044991 11 16 5
4.369270 3.175995 -6.224327 83 66 45
4.369270 3.685997 -5.714935 97 82 51
4.369270 3.685997 -1.013939 89 77 50
4.369270 4.685997 -5.712914 98 82 54
3.497135 4.685997 -1.224327 128 116 87
4.369270 4.685997 -1.879623 117 105 72
4.369270 3.896385 -1.224327 89 77 50
4.369270 5.685997 -5.720673 105 88 66
4.369270 5.450783 -1.224327 98 83 54
4.369270 5.685997 -0.989113 98 83 54
4.369270 6.182343 -5.224327 105 88 66
4.369270 6.685997 -4.716576 124 105 78
4.369270 6.685997 -1.050301 78 69 42
3.873177 7.685997 -4.224327 119 102 75
4.369270 7.685997 -4.720421 119 102 75
3.701611 7.685997 -0.224327 189 201 207
4.369270 7.685997 -0.897926 138 137 127
4.369270 8.182091 -4.224327 119 102 75
4.369270 8.685997 -3.718689 123 106 79
3.735889 8.685997 -0.224327 194 205 205
4.369270 8.685997 -0.827888 172 168 164
4.369270 9.180359 -3.224327 123 106 79
3.859921 9.685997 -3.224327 136 126 98
4.369270 9.685997 -2.673668 112 121 107
3.756561 9.685997 -0.224327 194 204 207
4.369270 9.685997 -0.801430 73 75 61
4.369270 10.685997 -2.707390 91 91 76
4.369270 10.685997 -0.755440 161 180 175
4.369270 11.685997 -2.715584 71 64 56
4.369270 11.685997 -1.733070 71 64 56
4.369270 11.154884 -1.224327 161 180 175
3.849144 11.685997 -0.224327 184 196 202
4.369270 12.177254 -2.224327 71 64 56
3.487637 16.685997 -7.224327 117 98 81
4.142536 18.685997 -19.224327 87 74 50
4.369270 18.459267 -19.224327 87 74 50
4.369270 18.685997 -19.451057 87 74 50
4.369270 18.685997 -18.997597 87 74 50
4.369270 18.912727 -19.224327 87 74 50
4.863979 -7.314003 -1.224327 98 67 54
4.863304 -7.314003 0.775673 120 116 119
4.839020 -6.314003 -1.224327 77 52 32
4.866821 -6.314003 -0.224327 87 81 85
4.840202 -6.314003 0.775673 88 77 83
5.369270 -5.806969 -3.224327 170 168 177
5.369270 -5.314003 -3.717293 170 168 177
4.862850 -5.314003 -2.224327 157 154 151
5.369270 -5.314003 -2.731361 170 168 177
5.369270 -5.314003 -1.715286 163 159 164
5.369270 -5.804962 -1.224327 163 159 164
4.844765 -5.314003 -0.224327 168 168 162
5.369270 -5.314003 -0.733368 163 159 164
4.814701 -5.314003 0.775673 163 157 163
4.847977 -4.314003 -4.224327 202 197 205
5.369270 -4.314003 -3.716148 181 181 183
5.369270 -4.783707 -2.224327 175 174 181
5.369270 -4.802246 -0.224327 177 181 176
5.369270 -4.314003 0.263916 177 181 176
5.369270 -3.811218 -4.224327 207 205 212
5.369270 -3.314003 -4.721542 207 205 212
4.791348 -3.314003 -0.224327 177 184 178
5.369270 -3.314003 -0.733002 176 184 173
5.369270 -3.825760 -0.224327 177 181 176
5.369270 -2.314003 -4.714760 118 120 112
4.759598 -2.314003 -0.224327 174 181 173
5.369270 -2.314003 -0.791214 169 170 169
5.369270 -1.810555 -5.224327 53 49 24
5.369270 -1.314003 -5.720879 53 49 24
5.369270 -1.314003 -0.818886 172 177 175
5.369270 -0.314003 -5.714394 68 61 37
5.369270 -0.314003 -0.795403 177 187 171
4.862679 0.685997 -6.224327 83 66 48
5.369270 0.685997 -5.712524 78 68 47
5.369270 0.685997 -0.839333 15 23 12
5.369270 1.193695 -6.224327 66 74 102
5.369270 1.685997 -6.716629 66 74 102
5.369270 1.685997 -0.969193 71 80 62
5.369270 2.685997 -6.718040 78 62 41
5.369270 2.685997 -1.040260 21 27 10
5.369270 3.179710 -6.224327 78 62 41
5.369270 3.685997 -5.712234 92 79 55
5.369270 3.685997 -0.912926 113 94 59
5.369270 4.685997 -5.710480 96 77 48
5.136982 4.685997 -1.224327 11 9 0
5.369270 4.685997 -0.992035 11 9 0
5.369270 5.172150 -5.224327 96 77 48
4.865616 5.685997 -5.224327 105 88 66
5.369270 5.685997 -4.682549 102 85 67
5.369270 5.685997 -1.023514 77 60 33
5.369270 6.144218 -4.224327 102 85 67
4.861519 6.685997 -4.224327 124 105 78
5.369270 6.685997 -3.702644 120 105 75
5.369270 6.685997 -1.082886 76 76 61
4.865364 7.685997 -4.224327 119 102 75
5.369270 7.685997 -3.696785 114 96 73
5.369270 7.685997 -0.968346 87 84 76
5.369270 8.158455 -3.224327 114 96 73
4.863636 8.685997 -3.224327 123 106 79
5.369270 8.685997 -2.649704 117 87 59
5.369270 8.685997 -0.912582 129 124 106
5.369270 9.685997 -2.691948 112 104 86
5.369270 9.685997 -0.800049 135 133 114
5.369270 10.685997 -2.702957 93 89 76
5.369270 10.685997 -0.731575 182 203 190
5.369270 11.164627 -2.224327 93 89 76
4.860527 11.685997 -2.224327 71 64 56
5.369270 11.178749 -1.224327 182 203 190
4.596004 18.685997 -19.224327 87 74 50
5.006283 22.685997 -9.224327 125 108 81
5.369270 22.323006 -9.224327 125 108 81
5.369270 22.685997 -9.587318 125 108 81
5.369270 22.685997 -8.861336 125 108 81
5.369270 23.048988 -9.224327 125 108 81
4.893055 25.685997 -20.224327 87 75 57
5.369270 25.209785 -20.224327 87 75 57
5.369270 25.685997 -20.700539 87 75 57
5.369270 25.685997 -19.748116 87 75 57
5.202553 26.685997 -21.224327 89 75 56
5.369270 26.519279 -21.224327 89 75 56
5.369270 26.685997 -21.391045 89 75 56
5.369270 26.162209 -20.224327 87 75 57
5.369270 26.685997 -21.057610 89 75 56
5.369270 26.852715 -21.224327 89 75 56
5.862236 -5.314003 -3.224327 170 168 177
5.860226 -5.314003 -1.224327 163 159 164
5.861092 -4.314003 -3.224327 181 181 183
5.838974 -4.314003 -2.224327 175 174 181
5.842262 -4.314003 -1.224327 167 166 168
5.857513 -4.314003 -0.224327 177 181 176
5.866489 -3.314003 -4.224327 207 205 212
5.847027 -3.314003 -3.224327 193 193 198
6.369270 -3.314003 -2.706375 185 187 191
6.369270 -3.796051 -2.224327 185 187 191
5.860596 -3.314003 -1.224327 176 184 173
6.369270 -3.314003 -1.742279 185 187 191
5.859703 -2.314003 -4.224327 118 120 112
6.369270 -2.314003 -3.705666 195 194 203
6.369270 -2.795341 -3.224327 195 194 203
6.369270 -2.780464 -1.224327 170 171 173
6.369270 -2.314003 -0.757866 170 171 173
5.865822 -1.314003 -5.224327 53 49 24
6.369270 -1.314003 -4.711327 119 121 110
6.369270 -1.801003 -4.224327 119 121 110
6.369270 -1.314003 -0.763329 186 192 190
5.859337 -0.314003 -5.224327 68 61 37
6.369270 -0.314003 -4.711388 79 78 64
6.369270 -0.314003 -0.752029 37 47 52
6.369270 0.194298 -5.224327 69 57 36
6.369270 0.685997 -5.716026 69 57 36
6.369270 0.685997 -0.815575 77 75 63
5.861576 1.685997 -6.224327 66 74 102
6.369270 1.685997 -5.705566 81 66 52
6.369270 1.685997 -0.885590 16 21 7
5.862984 2.685997 -6.224327 78 62 41
6.369270 2.685997 -5.709755 85 71 54
6.369270 2.685997 -0.958878 57 59 27
6.369270 3.171425 -5.224327 85 71 54
5.857182 3.685997 -5.224327 92 79 55
6.369270 3.685997 -4.705559 95 80 58
6.369270 3.685997 -0.845024 82 60 21
6.369270 4.193237 -5.224327 98 84 67
6.369270 4.685997 -5.717087 98 84 67
6.369270 4.685997 -0.832962 31 36 26
6.369270 5.178757 -5.224327 98 84 67
6.369270 5.685997 -4.701172 94 80 58
6.369270 5.685997 -0.891998 14 18 11
6.369270 6.162842 -4.224327 94 80 58
6.369270 6.685997 -3.710182 108 97 67
5.510712 6.685997 -1.224327 76 76 61
6.369270 6.685997 -1.815582 84 73 50
6.369270 6.018326 -1.224327 14 18 11
6.369270 7.685997 -3.708603 115 100 79
6.369270 7.396904 -1.224327 122 112 97
6.369270 7.685997 -0.935234 122 112 97
5.881409 8.685997 -3.224327 106 90 67
6.369270 8.685997 -3.712189 106 90 67
6.369270 8.685997 -0.889885 87 83 74
6.369270 9.173859 -3.224327 106 90 67
6.369270 9.685997 -2.678299 81 66 45
6.369270 9.685997 -0.839737 97 97 91
6.369270 10.685997 -2.697334 136 133 115
5.862019 10.685997 -1.224327 182 203 190
6.369270 10.685997 -1.751320 136 133 115
6.369270 10.070587 -1.224327 97 97 91
6.369270 11.159004 -2.224327 136 133 115
5.732258 22.685997 -9.224327 125 108 81
5.845486 25.685997 -20.224327 87 75 57
5.535988 26.685997 -21.224327 89 75 56
5.947220 32.685997 -14.224327 123 106 81
6.369270 32.263947 -14.224327 123 106 81
6.369270 32.685997 -14.646378 123 106 81
6.369270 32.685997 -13.802277 123 106 81
6.369270 33.108047 -14.224327 123 106 81
5.876171 34.685997 -15.224327 124 105 80
6.369270 34.192902 -15.224327 124 105 80
6.369270 34.685997 -15.717422 124 105 80
6.369270 34.685997 -14.731232 124 105 80
6.369270 35.179092 -15.224327 124 105 80
6.851318 -3.314003 -2.224327 185 187 191
6.850609 -2.314003 -3.224327 195 194 203
6.852066 -2.314003 -2.224327 188 194 196
6.835732 -2.314003 -1.224327 170 171 173
6.856266 -1.314003 -4.224327 119 121 110
7.369270 -1.314003 -3.697800 18 15 10
7.369270 -1.787476 -3.224327 18 15 10
7.369270 -1.807686 -2.224327 87 91 84
7.369270 -1.812805 -1.224327 189 197 194
7.369270 -1.314003 -0.725525 189 197 194
7.369270 -0.795715 -4.224327 10 15 5
7.369270 -0.314003 -4.706039 10 15 5
6.824371 -0.314003 -2.224327 115 119 111
7.369270 -0.314003 -2.737816 24 17 0
7.369270 -0.820320 -2.224327 87 91 84
7.369270 -0.815201 -1.224327 189 197 194
6.841568 -0.314003 -1.224327 37 47 52
6.860970 0.685997 -5.224327 69 57 36
7.369270 0.685997 -4.694870 82 70 50
6.822865 0.685997 -2.224327 86 92 81
7.369270 0.685997 -2.807770 37 31 16
7.369270 0.685997 -1.637489 11 20 11
7.369270 0.272835 -1.224327 11 20 11
7.369270 0.685997 -0.811165 11 20 11
7.369270 1.189384 -5.224327 85 68 50
7.369270 1.685997 -5.720940 85 68 50
6.799309 1.685997 -2.224327 41 41 29
7.369270 1.685997 -2.793442 61 53 29
7.369270 1.685997 -1.665665 27 36 29
7.369270 1.685997 -0.782990 27 36 29
7.369270 2.182610 -5.224327 85 68 50
6.854694 2.685997 -5.224327 85 71 54
7.369270 2.685997 -4.715981 95 80 54
7.369270 2.274170 -2.224327 71 74 58
7.369270 2.685997 -1.812500 71 74 58
6.634716 2.685997 -1.224327 57 59 27
7.369270 2.127335 -1.224327 27 36 29
7.369270 3.685997 -4.714569 96 81 55
7.369270 3.322205 -1.224327 40 40 16
7.369270 3.685997 -0.860535 40 40 16
6.862026 4.685997 -5.224327 98 84 67
7.369270 4.685997 -4.717972 89 76 54
7.369270 4.685997 -0.771629 101 79 44
7.369270 5.179642 -4.224327 89 76 54
6.846119 5.685997 -4.224327 94 80 58
7.369270 5.685997 -3.723511 86 76 48
7.369270 5.685997 -0.800346 17 10 4
7.369270 6.685997 -3.718407 94 76 56
6.983829 6.685997 -1.224327 81 90 81
7.369270 6.685997 -0.838882 81 90 81
7.369270 7.685997 -3.715012 92 78 61
7.369270 7.685997 -0.847107 104 75 50
7.369270 8.176682 -3.224327 92 78 61
6.857132 8.685997 -3.224327 106 90 67
7.369270 8.685997 -2.677773 82 67 37
7.369270 8.685997 -0.830894 123 114 105
7.369270 9.685997 -2.685616 67 50 28
7.369270 9.685997 -0.814598 89 86 81
7.369270 10.685997 -2.699883 85 84 74
6.891872 10.685997 -1.224327 89 87 79
7.369270 10.685997 -0.746925 89 87 79
7.369270 11.161552 -2.224327 85 84 74
6.880154 11.685997 -1.224327 128 124 113
7.369270 11.685997 -1.713448 128 124 113
7.369270 11.685997 -0.735207 128 124 113
7.369270 12.175117 -1.224327 128 124 113
6.974098 19.685997 -17.224327 85 109 95
7.369270 19.290825 -17.224327 85 109 95
7.369270 19.685997 -17.619499 85 109 95
7.369270 19.685997 -16.829155 85 109 95
7.369270 20.081169 -17.224327 85 109 95
6.791321 32.685997 -14.224327 123 106 81
6.862370 34.685997 -15.224327 124 105 80
8.369270 -1.804634 -3.224327 90 87 82
8.369270 -1.314003 -3.714958 90 87 82
7.862949 -1.314003 -2.224327 87 91 84
8.369270 -1.314003 -2.733696 90 87 82
7.868073 -1.314003 -1.224327 189 197 194
7.850979 -0.314003 -4.224327 10 15 5
8.369270 -0.823372 -3.224327 90 87 82
7.855785 -0.314003 -3.224327 24 17 0
8.369270 0.194611 -4.224327 61 49 29
8.369270 0.685997 -4.715714 61 49 29
7.785828 0.685997 -3.224327 37 31 16
8.369270 0.685997 -3.732941 61 49 29
7.782436 0.685997 -1.224327 11 20 11
7.865887 1.685997 -5.224327 85 68 50
8.369270 1.685997 -4.695122 72 58 43
7.800156 1.685997 -3.224327 61 53 29
8.369270 1.685997 -3.753532 72 58 43
7.810604 1.685997 -1.224327 27 36 29
8.369270 2.156792 -4.224327 72 58 43
7.860920 2.685997 -4.224327 95 80 54
8.369270 2.203384 -3.224327 88 77 43
8.369270 2.685997 -3.706940 88 77 43
8.369270 2.208931 -2.224327 74 95 84
8.369270 2.685997 -1.747261 74 95 84
7.859512 3.685997 -4.224327 96 81 55
8.369270 3.685997 -3.705170 64 58 22
7.733067 3.685997 -1.224327 40 40 16
8.369270 3.685997 -1.777664 26 24 3
7.862911 4.685997 -4.224327 89 76 54
8.369270 4.685997 -3.720612 13 14 1
7.850662 4.685997 -2.224327 126 104 66
8.369270 4.685997 -2.728043 13 14 1
8.369270 4.132660 -2.224327 26 24 3
7.821968 4.685997 -1.224327 101 79 44
8.369270 5.182281 -3.224327 13 14 1
7.868458 5.685997 -3.224327 86 76 48
7.822582 5.685997 -2.224327 73 59 37
7.793255 5.685997 -1.224327 17 10 4
7.863346 6.685997 -3.224327 94 76 56
7.807648 6.685997 -2.224327 11 12 8
8.369270 6.685997 -1.700027 75 80 68
8.369270 6.210297 -1.224327 75 80 68
8.369270 6.685997 -0.748627 75 80 68
7.859955 7.685997 -3.224327 92 78 61
8.369270 7.685997 -2.718262 61 11 8
8.369270 7.192062 -2.224327 61 11 8
8.369270 7.685997 -1.730392 61 11 8
7.746490 7.685997 -1.224327 104 75 50
8.369270 7.161697 -1.224327 75 80 68
8.369270 8.179932 -2.224327 61 11 8
7.822716 8.685997 -2.224327 82 67 37
7.762703 8.685997 -1.224327 123 114 105
8.369270 9.214500 -2.224327 52 39 17
8.369270 9.685997 -2.695824 52 39 17
8.369270 9.236816 -1.224327 101 94 77
8.369270 9.685997 -0.775146 101 94 77
8.369270 10.157494 -2.224327 52 39 17
7.844826 10.685997 -2.224327 85 84 74
8.369270 10.685997 -1.696007 89 87 77
8.369270 10.685997 -0.752647 89 87 77
8.369270 11.157677 -1.224327 89 87 77
7.858387 11.685997 -1.224327 128 124 113
7.958801 13.685997 -13.224327 105 89 66
8.369270 13.275528 -13.224327 105 89 66
8.369270 13.685997 -13.634796 105 89 66
8.369270 13.685997 -12.813858 105 89 66
8.369270 14.096466 -13.224327 105 89 66
7.764442 19.685997 -17.224327 85 109 95
8.859905 -1.314003 -3.224327 90 87 82
8.860657 0.685997 -4.224327 61 49 29
8.840061 1.685997 -4.224327 72 58 43
8.851879 2.685997 -3.224327 88 77 43
8.846340 2.685997 -2.224327 74 95 84
8.850117 3.685997 -3.224327 64 58 22
8.815933 3.685997 -2.224327 26 24 3
8.865555 4.685997 -3.224327 13 14 1
8.844971 6.685997 -1.224327 75 80 68
8.863205 7.685997 -2.224327 61 11 8
8.840767 9.685997 -2.224327 52 39 17
8.818451 9.685997 -1.224327 101 94 77
8.840950 10.685997 -1.224327 89 87 77
8.779739 13.685997 -13.224327 105 89 66
9.953728 28.685997 -15.224327 121 101 79
10.369270 28.270454 -15.224327 121 101 79
10.369270 28.685997 -15.639870 121 101 79
10.369270 28.685997 -14.808784 121 101 79
10.369270 29.101540 -15.224327 121 101 79
11.353622 10.685997 -7.224327 86 73 49
11.369270 10.670349 -7.224327 86 73 49
11.369270 10.685997 -7.239975 86 73 49
11.369270 10.685997 -7.208679 86 73 49
11.369270 10.701645 -7.224327 86 73 49
11.281586 12.685997 -13.224327 93 74 49
11.369270 12.598312 -13.224327 93 74 49
11.369270 12.685997 -13.312012 93 74 49
11.369270 12.685997 -13.136642 93 74 49
11.369270 12.773682 -13.224327 93 74 49
10.784813 28.685997 -15.224327 121 101 79
10.903847 31.685997 -17.224327 115 95 75
11.369270 31.220573 -17.224327 115 95 75
11.369270 31.685997 -17.689751 115 95 75
11.369270 31.685997 -16.758904 115 95 75
11.369270 32.151421 -17.224327 115 95 75
11.962448 9.685997 -34.224327 198 218 203
12.369270 9.279175 -34.224327 198 218 203
12.369270 9.685997 -34.631153 198 218 203
12.369270 9.685997 -33.817501 198 218 203
12.369270 10.092819 -34.224327 198 218 203
11.384918 10.685997 -7.224327 86 73 49
11.456955 12.685997 -13.224327 93 74 49
11.834694 31.685997 -17.224327 115 95 75
12.776093 9.685997 -34.224327 198 218 203
12.932823 26.685997 -25.224327 103 84 67
13.369270 26.249550 -25.224327 103 84 67
13.369270 26.685997 -25.660774 103 84 67
13.369270 26.685997 -24.787880 103 84 67
13.369270 27.122444 -25.224327 103 84 67
13.991966 11.685997 -40.224327 202 222 207
14.369270 11.308693 -40.224327 202 222 207
14.369270 11.685997 -40.601635 202 222 207
14.369270 11.685997 -39.847019 202 222 207
14.369270 12.063301 -40.224327 202 222 207
14.161667 23.685997 -21.224327 107 87 67
14.369270 23.478394 -21.224327 107 87 67
14.369270 23.685997 -21.431931 107 87 67
14.369270 23.685997 -21.016724 107 87 67
14.369270 23.893600 -21.224327 107 87 67
13.805717 26.685997 -25.224327 103 84 67
14.071938 32.685997 -50.224327 217 240 217
14.369270 32.388664 -50.224327 217 240 217
14.369270 32.685997 -50.521660 217 240 217
14.369270 32.685997 -49.926994 217 240 217
14.369270 32.983330 -50.224327 217 240 217
14.746574 11.685997 -40.224327 202 222 207
14.954781 14.685997 -10.224327 86 73 49
15.369270 14.271507 -10.224327 86 73 49
15.369270 14.685997 -10.638817 86 73 49
15.369270 14.685997 -9.809837 86 73 49
15.369270 15.100487 -10.224327 86 73 49
15.057037 19.685997 -17.224327 104 86 66
15.369270 19.373764 -17.224327 104 86 66
15.369270 19.685997 -17.536560 104 86 66
15.369270 19.685997 -16.912094 104 86 66
15.369270 19.998230 -17.224327 104 86 66
14.576874 23.685997 -21.224327 107 87 67
14.979485 25.685997 -23.224327 108 87 72
15.369270 25.296211 -23.224327 108 87 72
15.369270 25.685997 -23.614113 108 87 72
15.369270 25.685997 -22.834541 108 87 72
15.369270 26.075783 -23.224327 108 87 72
15.136536 27.685997 -4.224327 129 123 110
15.369270 27.453262 -4.224327 129 123 110
15.369270 27.685997 -4.457062 129 123 110
15.369270 27.685997 -3.991592 129 123 110
15.369270 27.918732 -4.224327 129 123 110
14.666603 32.685997 -50.224327 217 240 217
15.038857 35.685997 -53.224327 210 236 212
15.369270 35.355583 -53.224327 210 236 212
15.369270 35.685997 -53.554741 210 236 212
15.369270 35.685997 -52.893913 210 236 212
15.369270 36.016411 -53.224327 210 236 212
16.266624 -23.314003 -52.224327 180 198 196
16.369270 -23.416649 -52.224327 180 198 196
16.369270 -23.314003 -52.326969 180 198 196
16.369270 -23.314003 -52.121685 180 198 196
16.369270 -23.211357 -52.224327 180 198 196
15.959930 6.685997 -32.224327 83 69 50
16.369270 6.276657 -32.224327 83 69 50
16.369270 6.685997 -32.633667 83 69 50
16.030441 6.685997 -31.224327 84 70 51
16.369270 6.347168 -31.224327 84 70 51
16.369270 6.685997 -30.885494 84 70 51
16.369270 7.095337 -32.224327 83 69 50
16.369270 7.024826 -31.224327 84 70 51
15.783760 14.685997 -10.224327 86 73 49
15.681503 19.685997 -17.224327 104 86 66
16.071022 20.685997 -18.224327 109 90 73
16.369270 20.387749 -18.224327 109 90 73
16.369270 20.685997 -18.522575 109 90 73
16.369270 20.685997 -17.926079 109 90 73
16.369270 20.984245 -18.224327 109 90 73
15.759056 25.685997 -23.224327 108 87 72
15.602005 27.685997 -4.224327 129 123 110
15.699684 35.685997 -53.224327 210 236 212
16.471916 -23.314003 -52.224327 180 198 196
16.778610 6.685997 -32.224327 83 69 50
16.708099 6.685997 -31.224327 84 70 51
16.667519 20.685997 -18.224327 109 90 73
17.888260 13.685997 -25.224327 77 97 82
18.369270 13.204987 -25.224327 77 97 82
18.369270 13.685997 -25.705338 77 97 82
18.369270 13.685997 -24.743317 77 97 82
18.369270 14.167007 -25.224327 77 97 82
17.911667 33.685997 -5.224327 127 120 110
18.369270 33.228394 -5.224327 127 120 110
18.369270 33.685997 -5.681931 127 120 110
18.369270 33.685997 -4.766724 127 120 110
18.369270 34.143600 -5.224327 127 120 110
19.116287 6.685997 -28.224327 88 71 53
19.369270 6.433014 -28.224327 88 71 53
19.369270 6.685997 -28.477310 88 71 53
19.369270 6.685997 -27.971344 88 71 53
19.369270 6.938980 -28.224327 88 71 53
18.850281 13.685997 -25.224327 77 97 82
18.826874 33.685997 -5.224327 127 120 110
20.038895 -30.314003 -64.224327 180 197 198
20.369270 -30.644382 -64.224327 180 197 198
20.369270 -30.314003 -64.554703 180 197 198
20.369270 -30.314003 -63.893951 180 197 198
20.369270 -29.983624 -64.224327 180 197 198
19.622253 6.685997 -28.224327 88 71 53
19.943306 10.685997 -17.224327 86 70 49
20.369270 10.260033 -17.224327 86 70 49
20.369270 10.685997 -17.650291 86 70 49
20.369270 10.685997 -16.798363 86 70 49
20.369270 11.111961 -17.224327 86 70 49
20.699646 -30.314003 -64.224327 180 197 198
20.795235 10.685997 -17.224327 86 70 49
22.928986 13.685997 -31.224327 80 62 40
23.369270 13.245712 -31.224327 80 62 40
23.369270 13.685997 -31.664612 80 62 40
23.369270 13.685997 -30.784042 80 62 40
23.369270 14.126282 -31.224327 80 62 40
23.809555 13.685997 -31.224327 80 62 40
25.072968 0.685997 -17.224327 33 31 23
25.369270 0.389694 -17.224327 33 31 23
25.369270 0.685997 -17.520630 33 31 23
25.369270 0.685997 -16.928024 33 31 23
25.369270 0.982300 -17.224327 33 31 23
25.065079 18.685997 -34.224327 51 54 36
25.369270 18.381805 -34.224327 51 54 36
25.369270 18.685997 -34.528519 51 54 36
25.369270 18.685997 -33.920135 51 54 36
25.369270 18.990189 -34.224327 51 54 36
25.937302 0.685997 -18.224327 33 31 23
26.369270 0.254028 -18.224327 33 31 23
26.369270 0.685997 -18.656296 33 31 23
25.665573 0.685997 -17.224327 33 31 23
26.369270 0.685997 -17.792358 33 31 23
26.369270 1.117966 -18.224327 33 31 23
26.085106 4.685997 -22.224327 75 58 40
26.369270 4.401833 -22.224327 75 58 40
26.369270 4.685997 -22.508492 75 58 40
26.369270 4.685997 -21.940163 75 58 40
26.369270 4.970161 -22.224327 75 58 40
25.673462 18.685997 -34.224327 51 54 36
26.801239 0.685997 -18.224327 33 31 23
26.653435 4.685997 -22.224327 75 58 40
26.899910 6.685997 -17.224327 82 63 50
27.369270 6.216637 -17.224327 82 63 50
27.369270 6.685997 -17.693687 82 63 50
27.369270 6.685997 -16.754967 82 63 50
27.369270 7.155357 -17.224327 82 63 50
26.963852 54.685997 -23.224327 112 95 77
27.369270 54.280571 -23.224327 112 95 77
27.369270 54.685997 -23.629745 112 95 77
27.369270 54.685997 -22.818909 112 95 77
27.369270 55.091423 -23.224327 112 95 77
27.838631 6.685997 -17.224327 82 63 50
27.774689 54.685997 -23.224327 112 95 77
27.983635 56.685997 -24.224327 112 95 77
28.369270 56.300362 -24.224327 112 95 77
28.369270 56.685997 -24.609962 112 95 77
28.369270 56.685997 -23.838692 112 95 77
28.369270 57.071632 -24.224327 112 95 77
29.016167 7.685997 -24.224327 82 66 43
29.369270 7.332893 -24.224327 82 66 43
29.369270 7.685997 -24.577431 82 66 43
29.369270 7.685997 -23.871223 82 66 43
29.369270 8.039101 -24.224327 82 66 43
28.754906 56.685997 -24.224327 112 95 77
29.722374 7.685997 -24.224327 82 66 43
30.965179 23.685997 -42.224327 115 125 102
31.369270 23.281906 -42.224327 115 125 102
31.369270 23.685997 -42.628422 115 125 102
31.369270 23.685997 -41.820232 115 125 102
31.369270 24.090088 -42.224327 115 125 102
32.140091 23.685997 -43.224327 131 138 114
32.369270 23.456818 -43.224327 131 138 114
32.369270 23.685997 -43.453510 131 138 114
31.773361 23.685997 -42.224327 115 125 102
32.369270 23.685997 -42.995144 131 138 114
32.369270 23.915176 -43.224327 131 138 114
32.598450 23.685997 -43.224327 131 138 114
35.044044 43.685997 -14.224327 74 56 34
35.369270 43.360771 -14.224327 74 56 34
35.369270 43.685997 -15.052826 73 57 34
35.369270 43.685997 -13.899101 74 56 34
35.369270 44.011223 -14.224327 74 56 34
35.694496 43.685997 -14.224327 74 56 34
36.369270 44.685997 -14.694481 76 57 32
35.899117 44.685997 -14.224327 76 57 32
36.369270 44.215843 -14.224327 76 57 32
36.369270 44.685997 -13.754173 76 57 32
36.369270 45.156151 -14.224327 76 57 32
37.042618 8.685997 -22.224327 72 58 41
37.369270 8.359344 -22.224327 72 58 41
37.369270 8.685997 -22.550980 72 58 41
37.369270 8.685997 -21.897675 72 58 41
37.369270 9.012650 -22.224327 72 58 41
36.839424 44.685997 -14.224327 76 57 32
37.330215 46.685997 -16.224327 75 56 39
37.369270 46.646950 -16.224327 75 56 39
37.369270 46.685997 -16.263382 75 56 39
37.369270 46.685997 -16.185272 75 56 39
37.369270 46.725044 -16.224327 75 56 39
38.369270 8.286194 -22.224327 73 54 48
38.369270 8.685997 -22.624130 73 54 48
38.369270 8.685997 -21.824524 73 54 48
38.369270 9.085800 -22.224327 73 54 48
37.975006 46.685997 -18.224327 76 59 41
38.369270 46.291725 -18.224327 76 59 41
38.369270 46.685997 -18.618591 76 59 41
38.369270 46.685997 -17.830063 76 59 41
37.408325 46.685997 -16.224327 75 56 39
38.369270 47.080269 -18.224327 76 59 41
38.769073 8.685997 -22.224327 73 54 48
38.763535 46.685997 -18.224327 76 59 41
40.084679 48.685997 -18.224327 66 52 35
40.369270 48.401405 -18.224327 66 52 35
40.369270 48.685997 -18.508919 66 52 35
40.369270 48.685997 -17.939735 66 52 35
40.369270 48.970589 -18.224327 66 52 35
40.653862 48.685997 -18.224327 66 52 35
44.929237 54.685997 -21.224327 71 54 36
45.369270 54.245964 -21.224327 71 54 36
45.369270 54.685997 -21.664360 71 54 36
45.369270 54.685997 -20.784294 71 54 36
45.369270 55.126030 -21.224327 71 54 36
45.809303 54.685997 -21.224327 71 54 36
50.903801 62.685997 -24.224327 76 60 39
51.369270 62.220528 -24.224327 76 60 39
51.369270 62.685997 -24.689796 76 60 39
51.369270 62.685997 -23.758858 76 60 39
51.369270 63.151466 -24.224327 76 60 39
51.834740 62.685997 -24.224327 76 60 39
56.208374 68.685997 -26.224327 72 58 41
56.369270 68.525093 -26.224327 72 58 41
56.369270 68.685997 -26.385223 72 58 41
56.369270 68.685997 -26.063431 72 58 41
56.369270 68.846901 -26.224327 72 58 41
56.530167 68.685997 -26.224327 72 58 41
59.011620 72.685997 -28.224327 76 60 39
59.369270 72.328346 -28.224327 76 60 39
59.369270 72.685997 -28.581978 76 60 39
59.369270 72.685997 -27.866676 76 60 39
59.369270 73.043648 -28.224327 76 60 39
59.726921 72.685997 -28.224327 76 60 39
